1.3675 0.5 0.5 2 2 0
1.3675 0.5220144 0.5220144 2 2 0
1.365 0.5531852 0.5531852 2 2 0
1.3625 0.569783 0.569783 2 2 0
1.36 0.5873869 0.5873869 2 2 0
1.3575 0.6004828 0.6004828 2 2 0
1.355 0.610631 0.610631 2 2 0
1.3525 0.6210797 0.6210797 2 2 0
1.35 0.6311677 0.6311677 2 2 0
1.3475 0.6394056 0.6394056 2 2 0
1.345 0.6469252 0.6469252 2 2 0
1.3425 0.6555194 0.6555194 2 2 0
1.34 0.6627019 0.6627019 2 2 0
1.3375 0.6686395 0.6686395 2 2 0
1.335 0.676255 0.676255 2 2 0
1.3325 0.6826977 0.6826977 2 2 0
1.33 0.6880577 0.6880577 2 2 0
1.3275 0.694571 0.694571 2 2 0
1.325 0.7004238 0.7004238 2 2 0
1.3225 0.7053166 0.7053166 2 2 0
1.32 0.7111167 0.7111167 2 2 0
1.3175 0.7164573 0.7164573 2 2 0
1.315 0.7209287 0.7209287 2 2 0
1.3125 0.7262784 0.7262784 2 2 0
1.31 0.7311522 0.7311522 2 2 0
1.3075 0.7352212 0.7352212 2 2 0
1.305 0.7403062 0.7403062 2 2 0
1.3025 0.7447356 0.7447356 2 2 0
1.3 0.7486454 0.7486454 2 2 0
1.2975 0.7533637 0.7533637 2 2 0
1.295 0.7573602 0.7573602 2 2 0
1.2925 0.7613073 0.7613073 2 2 0
1.29 0.76556 0.76556 2 2 0
1.2875 0.7691275 0.7691275 2 2 0
1.285 0.7731741 0.7731741 2 2 0
1.2825 0.7769675 0.7769675 2 2 0
1.28 0.7803264 0.7803264 2 2 0
1.2775 0.7842953 0.7842953 2 2 0
1.275 0.7876276 0.7876276 2 2 0
1.2725 0.7912163 0.7912163 2 2 0
1.27 0.7947002 0.7947002 2 2 0
1.2675 0.7978101 0.7978101 2 2 0
1.265 0.8014048 0.8014048 2 2 0
1.2625 0.804399 0.804399 2 2 0
1.26 0.8078094 0.8078094 2 2 0
1.2575 0.8108944 0.8108944 2 2 0
1.255 0.8139662 0.8139662 2 2 0
1.2525 0.8171073 0.8171073 2 2 0
1.25 0.8199152 0.8199152 2 2 0
1.2475 0.8230822 0.8230822 2 2 0
1.245 0.8256884 0.8256884 2 2 0
1.2425 0.8288523 0.8288523 2 2 0
1.24 0.8314638 0.8314638 2 2 0
1.2375 0.8344428 0.8344428 2 2 0
1.235 0.8370368 0.8370368 2 2 0
1.2325 0.8398726 0.8398726 2 2 0
1.23 0.8424227 0.8424227 2 2 0
1.2275 0.8451531 0.8451531 2 2 0
1.225 0.8476368 0.8476368 2 2 0
1.2225 0.8502921 0.8502921 2 2 0
1.22 0.8526874 0.8526874 2 2 0
1.2175 0.8552929 0.8552929 2 2 0
1.215 0.8575788 0.8575788 2 2 0
1.2125 0.8601551 0.8601551 2 2 0
1.21 0.8623548 0.8623548 2 2 0
1.2075 0.8648748 0.8648748 2 2 0
1.205 0.8670947 0.8670947 2 2 0
1.2025 0.8694454 0.8694454 2 2 0
1.2 0.8716939 0.8716939 2 2 0
1.1975 0.8738583 0.8738583 2 2 0
1.195 0.8761414 0.8761414 2 2 0
1.1925 0.8781843 0.8781843 2 2 0
1.19 0.880423 0.880423 2 2 0
1.1875 0.8825215 0.8825215 2 2 0
1.185 0.8845231 0.8845231 2 2 0
1.1825 0.8866767 0.8866767 2 2 0
1.18 0.8886575 0.8886575 2 2 0
1.1775 0.8906306 0.8906306 2 2 0
1.175 0.8926738 0.8926738 2 2 0
1.1725 0.894582 0.894582 2 2 0
1.17 0.8964623 0.8964623 2 2 0
1.1675 0.8984333 0.8984333 2 2 0
1.165 0.9002972 0.9002972 2 2 0
1.1625 0.9020739 0.9020739 2 2 0
1.16 0.9039462 0.9039462 2 2 0
1.1575 0.9057807 0.9057807 2 2 0
1.155 0.9075441 0.9075441 2 2 0
1.1525 0.9092498 0.9092498 2 2 0
1.15 0.9109893 0.9109893 2 2 0
1.1475 0.912738 0.912738 2 2 0
1.145 0.9144368 0.9144368 2 2 0
1.1425 0.9160943 0.9160943 2 2 0
1.14 0.9177182 0.9177182 2 2 0
1.1375 0.9193143 0.9193143 2 2 0
1.135 0.920902 0.920902 2 2 0
1.1325 0.922506 0.922506 2 2 0
1.13 0.92408 0.92408 2 2 0
1.1275 0.9256277 0.9256277 2 2 0
1.125 0.9271511 0.9271511 2 2 0
1.3675 0.5 0.5 2 2 0
1.3675 0.4779856 0.4779856 2 2 0
1.365 0.4468148 0.4468148 2 2 0
1.3625 0.430217 0.430217 2 2 0
1.36 0.4126131 0.4126131 2 2 0
1.3575 0.3995172 0.3995172 2 2 0
1.355 0.389369 0.389369 2 2 0
1.3525 0.3789203 0.3789203 2 2 0
1.35 0.3688323 0.3688323 2 2 0
1.3475 0.3605944 0.3605944 2 2 0
1.345 0.3530748 0.3530748 2 2 0
1.3425 0.3444806 0.3444806 2 2 0
1.34 0.3372981 0.3372981 2 2 0
1.3375 0.3313605 0.3313605 2 2 0
1.335 0.323745 0.323745 2 2 0
1.3325 0.3173023 0.3173023 2 2 0
1.33 0.3119423 0.3119423 2 2 0
1.3275 0.305429 0.305429 2 2 0
1.325 0.2995762 0.2995762 2 2 0
1.3225 0.2946834 0.2946834 2 2 0
1.32 0.2888833 0.2888833 2 2 0
1.3175 0.2835427 0.2835427 2 2 0
1.315 0.2790713 0.2790713 2 2 0
1.3125 0.2737216 0.2737216 2 2 0
1.31 0.2688478 0.2688478 2 2 0
1.3075 0.2647788 0.2647788 2 2 0
1.305 0.2596938 0.2596938 2 2 0
1.3025 0.2552644 0.2552644 2 2 0
1.3 0.2513546 0.2513546 2 2 0
1.2975 0.2466363 0.2466363 2 2 0
1.295 0.2426398 0.2426398 2 2 0
1.2925 0.2386927 0.2386927 2 2 0
1.29 0.23444 0.23444 2 2 0
1.2875 0.2308725 0.2308725 2 2 0
1.285 0.2268259 0.2268259 2 2 0
1.2825 0.2230325 0.2230325 2 2 0
1.28 0.2196736 0.2196736 2 2 0
1.2775 0.2157047 0.2157047 2 2 0
1.275 0.2123724 0.2123724 2 2 0
1.2725 0.2087837 0.2087837 2 2 0
1.27 0.2052998 0.2052998 2 2 0
1.2675 0.2021899 0.2021899 2 2 0
1.265 0.1985952 0.1985952 2 2 0
1.2625 0.195601 0.195601 2 2 0
1.26 0.1921906 0.1921906 2 2 0
1.2575 0.1891056 0.1891056 2 2 0
1.255 0.1860338 0.1860338 2 2 0
1.2525 0.1828927 0.1828927 2 2 0
1.25 0.1800848 0.1800848 2 2 0
1.2475 0.1769178 0.1769178 2 2 0
1.245 0.1743116 0.1743116 2 2 0
1.2425 0.1711477 0.1711477 2 2 0
1.24 0.1685362 0.1685362 2 2 0
1.2375 0.1655572 0.1655572 2 2 0
1.235 0.1629632 0.1629632 2 2 0
1.2325 0.1601274 0.1601274 2 2 0
1.23 0.1575773 0.1575773 2 2 0
1.2275 0.1548469 0.1548469 2 2 0
1.225 0.1523632 0.1523632 2 2 0
1.2225 0.1497079 0.1497079 2 2 0
1.22 0.1473126 0.1473126 2 2 0
1.2175 0.1447071 0.1447071 2 2 0
1.215 0.1424212 0.1424212 2 2 0
1.2125 0.1398449 0.1398449 2 2 0
1.21 0.1376452 0.1376452 2 2 0
1.2075 0.1351252 0.1351252 2 2 0
1.205 0.1329053 0.1329053 2 2 0
1.2025 0.1305546 0.1305546 2 2 0
1.2 0.1283061 0.1283061 2 2 0
1.1975 0.1261417 0.1261417 2 2 0
1.195 0.1238586 0.1238586 2 2 0
1.1925 0.1218157 0.1218157 2 2 0
1.19 0.119577 0.119577 2 2 0
1.1875 0.1174785 0.1174785 2 2 0
1.185 0.1154769 0.1154769 2 2 0
1.1825 0.1133233 0.1133233 2 2 0
1.18 0.1113425 0.1113425 2 2 0
1.1775 0.1093694 0.1093694 2 2 0
1.175 0.1073262 0.1073262 2 2 0
1.1725 0.105418 0.105418 2 2 0
1.17 0.1035377 0.1035377 2 2 0
1.1675 0.1015667 0.1015667 2 2 0
1.165 0.0997028 0.0997028 2 2 0
1.1625 0.0979261 0.0979261 2 2 0
1.16 0.0960538 0.0960538 2 2 0
1.1575 0.0942193 0.0942193 2 2 0
1.155 0.0924559 0.0924559 2 2 0
1.1525 0.0907502 0.0907502 2 2 0
1.15 0.0890107 0.0890107 2 2 0
1.1475 0.087262 0.087262 2 2 0
1.145 0.0855632 0.0855632 2 2 0
1.1425 0.0839057 0.0839057 2 2 0
1.14 0.0822818 0.0822818 2 2 0
1.1375 0.0806857 0.0806857 2 2 0
1.135 0.079098 0.079098 2 2 0
1.1325 0.077494 0.077494 2 2 0
1.13 0.07592 0.07592 2 2 0
1.1275 0.0743723 0.0743723 2 2 0
1.125 0.0728489 0.0728489 2 2 0
